ply
format ascii 1.0
comment PCL generated
element vertex 1235
property float x
property float y
property float z
element camera 0
property float view_px
property float view_py
property float view_pz
property float x_axisx
property float x_axisy
property float x_axisz
property float y_axisx
property float y_axisy
property float y_axisz
property float z_axisx
property float z_axisy
property float z_axisz
property float focal
property float scalex
property float scaley
property float centerx
property float centery
property int viewportx
property int viewporty
property float k1
property float k2
end_header
7.1615699e-07 -1.476652 -1.4784348
9.1580665e-18 -0.11706493 1.4119171e-10
-1.476652 -1.4784348 9.1580665e-18
-0.11706493 2.6617484e-14 0.11706493
-1.1868048e+29 0.053207155 -0.051986452
-0.11706493 6.4984091e-18 0.11706493
3.5227946e-37 0.053256184 -1.1868251e+29
-1.4774455 -1.4784526 -1.476652
-1.4784348 9.1580665e-18 -0.11706493
3.8733536e-25 0.11706493 3.5227946e-37
0.053256184 -1.1868251e+29 -1.4770626
0.11706493 -1.1868251e+29 -1.4784347
6.6543709e-15 -1.1868251e+29 -1.4768751
0.11706493 -1.1868251e+29 -1.4784347
6.6543709e-15 -1.1868251e+29 -1.4766876
0.11706493 -1.1868082e+29 7.5585821e+14
-1.1868251e+29 -1.483879 -0.046371218
-0.11706493 2.2791864e-33 -1.483879
-0.11706493 -1.1868251e+29 -1.483879
-0.046371218 -0.11706493 -1.1868082e+29
1.3180339e+14 3.5380704e+22 -1.1868251e+29
-1.4784526 -1.483879 -0.11706493
0.051986452 -0.038314577 -0.11706493
-1.1868082e+29 -1.1868251e+29 -1.483879
-0.046222623 -1.480009 -1.483879
-0.11706493 2.1898188e+20 -0.11706493
3029.2649 1917.9918 -1.1868251e+29
-1.4784008 -1.1868251e+29 -1.47776
2.1253271e+11 -0.11706493 -1.1868251e+29
-1.4772717 -1.1868251e+29 -1.47776
2.1253271e+11 -0.11706493 -1.1868251e+29
-1.483879 -0.046371218 -0.11706493
5.6969516e-34 -1.1868251e+29 -1.483879
-0.11706493 -1.1868082e+29 -1.1868143e+29
-1.1868082e+29 9.0342906e+08 -1.483879
-0.097002484 -1.1868128e+29 8.1303955e+11
-1.483879 -0.048324343 -0.046371218
-0.11706493 9.3699397e+29 -1.1868251e+29
-1.483879 -0.046750296 -1.1868251e+29
-1.4770581 0.0073165582 1.5865256e-21
-1.1868079e+29 3.3413984e+15 -0.11706493
-1.1868082e+29 0.029266233 4.4656727e-07
-1.1868073e+29 1.7689216e-07 -0.11706493
-1.1868082e+29 0.037171301 -1.483879
-0.04225086 -1.1868251e+29 -1.483879
-0.046201643 -1.4787883 -1.483879
-0.040755983 -0.046371218 -0.11706493
6.2887715e+37 -1.4795207 -1.483879
-0.03929114 -0.046371218 -0.11706493
6.2887715e+37 -1.4795207 -1.483879
-0.037826296 -0.046371218 -0.11706493
5.5855786e+22 2.3187098e+27 -1.1868044e+29
9.8620673e+35 -0.11706493 6.2887715e+37
-1.4795207 -1.483879 -0.034751166
-1.1868251e+29 -1.480415 0.46825972
1.3820588e+20 -1.1868032e+29 1.105576e-08
-0.11706493 -1.1868082e+29 0.11706493
491005.91 -1.1868027e+29 9.1451102e-33
-0.11706493 3.7319849e-29 -1.4774455
-1.483879 -0.11706493 -1.1868082e+29
-1.1868251e+29 -1.4770581 0.0073165582
1.5865256e-21 -1.1868251e+29 -1.483879
-0.046371218 -0.11706493 3.7319849e-29
-1.4774455 -1.483879 -0.11706493
0.11706493 -1.186804e+29 0.045882937
-0.038314577 -0.11706493 -1.1868139e+29
0.11706493 -1.1868063e+29 0.045658186
-1.1868251e+29 -1.483879 -0.051816877
-1.483879 -0.11706493 0.045150515
-0.11364296 -1.186807e+29 0.11706493
1.5560598e+35 0.044770032 -0.11706493
-1.1868035e+29 0.11706493 3.7989742e+31
0.044643149 -1.1868251e+29 -1.483879
-0.11706493 0.11706493 1.0154134e+28
1.3180339e+14 -1.1868251e+29 -1.483879
-0.11706493 0.11706493 1.0154134e+28
1.3180339e+14 -1.1868251e+29 -1.4825625
0.11706493 1.0154134e+28 1.3180339e+14
-1.1868251e+29 -1.483879 -0.060361799
-1.4795594 0.044262823 -1.483879
-0.11706493 -1.1868102e+29 0.11706493
8.3120609e+20 1.2569751e+08 -1.1868251e+29
-1.483879 -0.042539533 -1.4790188
0.043929812 -0.061752077 -0.11706493
-1.1868033e+29 0.11706493 1.6994586e+10
-1.1868142e+29 -1.1868251e+29 -1.483879
-0.11706493 0.11706493 8.1421953e-12
-1.1868078e+29 -1.1868251e+29 -1.483879
-0.11706493 0.11706493 8.1421953e-12
-1.1868078e+29 -1.1868251e+29 -1.483879
-0.11706493 0.11706493 8.1421953e-12
-1.1868078e+29 -1.1868251e+29 -1.483879
-0.059873518 -1.477397 0.042739943
-1.1868251e+29 -1.483879 -0.050840314
-1.4772167 0.042709108 -0.033431765
-0.11706493 -1.1868065e+29 0.11706493
1.4091178e-36 0.042220827 -0.11364285
-1.1868031e+29 0.11706493 -1.1868028e+29
0.041851789 -0.11706493 6.2242393e+35
0.11706493 -1.186805e+29 0.041724905
-0.11706493 1.5195897e+32 0.11706493
-1.1868251e+29 -1.4784282 5.1925935e-22
-0.11706493 3.7099357e+28 0.11706493
-1.1868131e+29 0.040023562 -0.040267702
-0.11706493 4.5947101e+24 -1.483879
-0.11706493 0.039821729 -1.1868251e+29
-1.4795625 0.11706493 -1.1868251e+29
-1.4784281 4.1947366e-28 -0.11706493
3.6625262e+13 -1.4790934 -1.4784275
3.5380704e+22 -1.1868141e+29 -1.1868128e+29
0.061996218 -0.11706493 0.029266233
3.9835132e+37 1.5560598e+35 4.1089512e-17
-1.483879 -0.046096541 5.9358972e+29
4.932769e+32 3.9835132e+37 -1.1868081e+29
-4457591.5 -1.4801005 -1.478706
3.9835132e+37 8.1088663e+11 1.7444034e-09
2.3743589e+30 -1.1868082e+29 3.9835132e+37
2.558762e-18 491005.91 1.4839743e+29
-1.1868082e+29 3.9835132e+37 -1.1868081e+29
-6.2559268e+09 -1.4799174 -1.4797741
3.9835132e+37 0.029266233 -1095.4921
-0.057601687 -0.038876999 -1.1868251e+29
-1.4784181 -7.8921042e-10 -0.057000097
-1.478439 -1.1868081e+29 -1.186821e+29
-1.4429367e-33 6.6189498e+22 1.494854e+37
-0.046127077 -0.039833959 -1.4794687
5.5928736e+22 1.5328351e+34 -0.043816503
-1.4794062 1.5674728e-22 -1.483879
-0.046127077 -0.05125403 -0.11706493
4.586255e+16 -0.046262678 -1.483879
-0.046096541 5.9358972e+29 2.6553031e+15
-0.046262678 -1.478422 -1.4825602
-1.1868107e+29 9.1597319e-33 -1.1868114e+29
0.029266233 -1.3835877e+09 -0.051986452
-0.11706493 0.061996218 -0.046127077
-0.095964305 -1.4790934 -1.478439
-1.1868103e+29 0.02497682 -1.18681e+29
-1.1868116e+29 0.061996218 -0.051571652
-5.854338e-22 -0.050521608 -0.036923874
3.4165176e-29 -1.4767131 -1.4789103
-1.483879 -0.046261847 1.0739797e-11
-0.032455202 -0.049545046 -0.11706493
0.061771743 0.029266233 -1.1868217e+29
-0.049056765 -0.045468792 -1.1868136e+29
0.029266233 -1.1868229e+29 -0.048568483
-0.11706493 0.061752077 -0.060116705
-1.483879 -0.10582975 -1.1868251e+29
-1.4784389 9.8169841e+18 -1.4799174
-1.483879 -0.047591921 -0.054013714
0.0073165582 0.029266233 3.6395907e+09
-0.04710364 -0.035947308 2.5993636e-17
0.029266233 0.002760872 -0.046500143
-1.4784389 4.3610085e-10 0.029266233
3086.9841 -0.046000417 -1.4784389
2.5993636e-17 0.029266233 0.002760872
-0.045500003 0.061557706 -1.478422
-1.4783692 -1.1868078e+29 1.2871425e+11
0.061535228 0.029266233 1.7893535e-15
-0.044500288 -1.4784387 -1.1868251e+29
-1.478422 -1.477138 -0.044000003
0.061507937 -0.11706493 0.029266233
1.1840801e-33 8.1422603e-12 -1.1868054e+29
0.029266233 -1.1868251e+29 -1.483879
-0.043000158 -1.4784387 -1.1868054e+29
0.029266233 -1.1868251e+29 -1.483879
-0.0425 0.061467651 0.029266233
-7.7817922e+25 5.3637197e-34 -1.1868251e+29
-1.478422 -1.483879 -0.05100989
-0.041488405 -0.11706493 0.061507937
-0.047909673 -1.483879 -0.041244265
-0.041000124 -0.04626077 -1.483879
-0.046127077 -0.11706493 3.2178563e+10
4.1589818e-16 3.2553013e+12 -3.4702156e-38
-0.11450336 2.5993636e-17 3.649319e-32
-3.4702156e-38 -0.11450336 1.6246023e-18
-1.1868082e+29 2.4896957e+36 1.2679314e+10
-0.11706493 -1.1868251e+29 -1.477537
-1.4802014 2.4896957e+36 4.0008862e-20
-0.11706493 -1.1868251e+29 -1.477476
-1.4779736 2.4896957e+36 -1.1868081e+29
-1.1868032e+29 -1512.8729 -1.483879
-0.04626077 -1.483879 -0.046127077
-0.033390749 2.4789463e-23 -1.1868082e+29
2.4896957e+36 -1.1868081e+29 -1.1868032e+29
-1512.7479 -1.4790112 2.4896957e+36
-1.1868081e+29 -1.1868032e+29 -1512.6854
-1.4767834 2.4896957e+36 1.2679314e+10
-0.11706493 -1.1868251e+29 -1.4771562
-1.1868082e+29 2.4896957e+36 1.2679314e+10
-0.11706493 -1.1868251e+29 -1.4770937
1.5012428e+31 -3.4702156e-38 -0.11450336
1.085478e-29 2.0510073e+36 -1.1868246e+29
-1.7360607e-38 -1.1868082e+29 2.4896957e+36
-1.1868081e+29 -1.1868251e+29 -1.4790324
-1.4769062 -1.1868082e+29 2.4896957e+36
-1.1868081e+29 -1.1868251e+29 -1.4790324
-1.4768437 49672124 -1.4801097
-1.1868251e+29 -1.4770793 -1.4767812
1.3920968e-37 -1.1868081e+29 -1.1868251e+29
-1.476591 -1.4767187 -1.1868082e+29
2.4896957e+36 5.9876369e+31 -0.11706493
9.4564298e-29 4.3033239e-37 2.4896957e+36
755.74603 -0.11706493 2.6617484e-14
2.463863e-38 2.4896957e+36 -1.1868081e+29
-1.1868032e+29 -1511.4921 -0.11706493
0.061507937 -0.11706493 0.029266233
1.1840739e-33 -1.483879 -0.040097695
-1.1868251e+29 -1.478422 -1.47683
-0.029266233 -72.120079 -1.1868251e+29
-1.478422 -1.477138 -0.029266233
-1.1868082e+29 2.0510073e+36 -1.1868246e+29
-1.7351078e-38 -0.056943398 -1.1868251e+29
-1.478422 -1.483879 -0.05100989
-0.11706493 3.8901496e+34 0.061507937
-0.047909673 -1.483879 -0.041244265
-0.11706493 5.5985914e+19 1.5934053e+38
0.029266233 -1.1868025e+29 -1.1868251e+29
-1.4787577 -1.4784387 1.5934053e+38
0.029266233 -1.1868025e+29 -1.1868251e+29
-1.478 0.06140035 -1.478422
-1.483879 -0.03147864 -0.11706493
3.8733536e-25 0.061507937 -0.035946783
-1.483879 -0.048080202 -0.11706493
-1.1868251e+29 -1.4784387 -1.1868043e+29
0.029266233 -1.1868089e+29 -1.1868251e+29
-1.4795001 0.11706493 -1.1868076e+29
0.051576551 -1.483879 -0.11706493
-1.1868251e+29 -1.4784526 -1.483879
-0.11706493 0.052230593 -0.11706493
-1.186821e+29 -3.9663141e-22 0.11706493
-1.1868251e+29 -1.4784344 -1.1868032e+29
-1.1868251e+29 -1.4783126 0.11706493
-1.1868048e+29 0.053207155 -0.051986452
-0.11706493 1.5195897e+32 0.11706493
0.00045728488 0.054453254 -1.1868251e+29
-1.477125 0.11706493 3.2950849e+13
0.05516028 -0.061752077 -0.056000002
0.11706493 5.7967746e+26 0.055536047
-0.0030050126 -0.11706493 0.11706493
-1.1868106e+29 0.056136843 -0.11706493
2.5993636e-17 3.6580441e-32 -0.11706493
-1.1868082e+29 1.0973033e+24 -1.4766562
5.8782502e+28 -0.11706493 1.4591739e-31
-1.1868251e+29 -1.4825624 -1.1868082e+29
-1.1868251e+29 -1.483879 -0.046243604
-1.4803752 -1.483879 -0.035750616
-1.1868251e+29 -1.483879 -0.046244558
-1.4775676 -1.4766562 5.8782502e+28
-0.11706493 193973.22 0.0078125
5.68797e-39 -0.11706493 8.9457983e+23
-1.186808e+29 4.3033239e-37 -1.1868251e+29
-1.4801708 2.3913629e+29 -1.1868042e+29
5.8782502e+28 -0.034189451 2.3743589e+30
-1.186808e+29 -1247.4921 -0.046371218
-0.036892164 9.4974355e+30 191500.28
5.8782502e+28 -0.039592016 3.7989742e+31
-1.186808e+29 2.5993636e-17 3.6580441e-32
-0.039592016 3.7989742e+31 -1.186808e+29
1917.9918 -1.1868082e+29 -1.1868057e+29
6.7307179e-13 -1.483879 -0.045750976
47.484127 -0.038314577 -0.046252444
2.4290224e-24 -0.035750616 -1.1868046e+29
6.2683402e-22 -1.4787668 -1.1868134e+29
-1.1868082e+29 -1.1868057e+29 6.7307179e-13
-1.483879 -0.045882937 -0.11706493
3.6580441e-32 -0.041000124 -0.046253379
-1.186808e+29 -1.1868079e+29 3.3413984e+15
-0.04499172 6.0783587e+32 4.4767377e-05
-1.1868082e+29 -1.1868082e+29 -1.1868082e+29
8.4703285e+32 -1.1868251e+29 -1.483879
-0.046371218 -0.046371218 -0.046255257
1.4478102e-31 -0.05475067 -1.1868082e+29
-1.1868082e+29 8.4703285e+32 -1.1868208e+29
-3.7458371e-29 -0.04499172 6.0783587e+32
4.4825552e-05 5.8782502e+28 -0.04499172
6.0783587e+32 4.4833181e-05 -1.1868082e+29
-1.1868088e+29 3.3330962e+15 -1.483879
-0.045916989 -1.1868082e+29 -1.1868093e+29
-1.1868082e+29 3.304745e+33 -0.045925077
-1.483879 -0.046371218 -0.051742312
-0.046257131 3.2322269e+12 -1.4769055
-1.1868114e+29 -1.1868082e+29 4.9955253e+34
-0.045940429 1.105576e-08 -0.054427858
-0.046258066 -1.1868081e+29 1.7261932e-07
-1.1868119e+29 -1.1868082e+29 1.5560598e+35
-1.1868081e+29 0.014339386 -0.046371218
-0.057142485 1.9462872e+35 -0.045964178
-1.483879 -0.046371218 -0.057142485
1.9462872e+35 -0.045971807 -1.483879
-0.046371218 -0.061263796 -0.04626077
-1.4773021 8.2377121e+12 -1.1868082e+29
-1.186814e+29 -1.1868082e+29 2.4896957e+36
2.4345476e-24 1.571118e-22 -0.061263796
-0.04626077 -1.4773021 6.6189498e+22
-1.186814e+29 -1.1868082e+29 2.4896957e+36
2.4353933e-24 -1.4797741 -1.186814e+29
-1.1868082e+29 2.4896957e+36 2.4357883e-24
-3.7458371e-29 -0.11706493 2.6927375e-12
-1.1868081e+29 3.9835132e+37 0.11706493
-1.186808e+29 0.061776098 -1.478422
-1.477125 0.11706493 6.2242393e+35
0.061507937 -0.037167486 -1.477875
0.11706493 6.2242393e+35 0.061507937
-0.037167486 -1.4786357 -1.4784526
-1.479799 0.061056074 -1.478422
-1.479375 0.11706493 3.5380704e+22
0.061019655 -0.11706493 0.029266233
1.5195897e+32 0.11706493 5.0483873e-25
-1.1868093e+29 0.029266233 -1.1868137e+29
0.11706493 2.059428e+12 0.060575798
0.029266233 -1.1868035e+29 0.11706493
6.2242393e+35 0.061507937 -0.037167486
-1.483879 -0.046371218 -0.11706493
-1.1868082e+29 9.9587829e+36 -1.1868081e+29
-1.1868032e+29 1.105576e-08 -0.11706493
0.0028913636 -1.1868081e+29 -1.1868055e+29
-1.1868082e+29 -1.1868251e+29 -1.4793164
1.5934053e+38 -1.1868081e+29 -1.1868079e+29
3.3413984e+15 -0.11706493 1.540948e+34
-0.061507937 -0.046127077 -0.05125403
-0.046371218 -0.094984509 -1.1868251e+29
-1.4796214 -1.1868125e+29 -1.1868082e+29
-1.1868251e+29 -1.4770275 -1.1868078e+29
1.2679314e+10 -0.11706493 2.3973358e-27
-0.11706493 5.68797e-39 -0.11706493
2.4503486e+35 -1.1868082e+29 -1.1868251e+29
-1.4765698 -1.1868251e+29 -1.4802929
3.3760762e-11 -1.1868251e+29 -1.483879
-0.046371218 -0.11706493 2.2238941e-36
-1.1868082e+29 -1.1868251e+29 -1.483879
-0.046371218 -0.11706493 2.1301576e+17
9.3645929e-30 -0.11706493 -1.1868082e+29
-1.1868102e+29 -1.1868082e+29 1.7261932e-07
-1.1868251e+29 -1.483879 -0.046371218
-0.11706493 2.2241763e-36 -1.1868082e+29
-1.1868251e+29 -1.483879 -0.046371218
-0.11706493 -1.1868082e+29 5.0052764e-05
-0.046371218 -0.055404421 -0.046371218
-0.11706493 -1.1868082e+29 0.00084767101
-1.1868101e+29 3111919.8 -0.10337112
0.014339386 -0.046371218 -0.041732546
-0.046371218 -0.037922133 0.24114893
-0.046371218 -0.036245573 -1.1868054e+29
-1.1868082e+29 7.4921556 2.3973358e-27
-0.11706493 194494.98 -0.11706493
1.7626347e-07 -1.4794079 -1.1868251e+29
-1.4784526 -1.483879 -0.061093584
-1.1868251e+29 -1.4784526 -1.483879
-0.11706493 0.11706493 2.2153741e-09
-1.1868251e+29 -1.4784526 -1.483879
-0.056211408 -1.4801135 0.049056765
-0.045469221 -1.483879 -0.11706493
0.11706493 -1.1868251e+29 -1.4784329
-1.1868251e+29 -1.4784526 -1.4801056
0.11706493 -1.1868085e+29 0.050033327
-0.11706493 0.11706493 8.8451761e+21
0.11706493 119.87449 0.050521608
-0.036924299 -1.478422 -1.4784526
-1.483879 -0.039120972 -1.1868116e+29
0.11706493 5.7002582e-19 -1.4790019
-1.4784338 -1.1868082e+29 -1.1868035e+29
2.2862776e-33 -0.051742312 -0.046223577
-1.483879 -0.046371218 -0.11706493
1.5048321e+31 -0.11706493 1.1021038e-08
0.18548487 -0.11706493 3038.9841
-0.038558718 -0.046227537 -1.1868082e+29
-1.1868251e+29 -1.4773022 -1.1868251e+29
-1.4785839 4.586255e+16 -0.046371218
-0.11706493 -1.1868082e+29 -1.1868251e+29
-1.483879 -0.11706493 -1.1868251e+29
-1.4769055 -1.1868047e+29 9.1154936e-33
3.2178563e+10 -1.1868251e+29 -1.483879
-0.046371218 -0.047836062 -0.046224792
-1.6706992e+15 -0.11706493 -1.1868082e+29
-1.1868104e+29 8.9414935e+23 -1.4787883
-1.483879 -0.096001126 -1.1868114e+29
5.4575671e+19 -1.483879 -0.10925
0.11706493 6.5656652e+25 -1.1868251e+29
-1.483879 -0.10875001 0.11706493
2.6651042e+32 -1.1868066e+29 -1.1868233e+29
-1.0142215e-08 -1.4801428 0.053451296
-0.042220827 -0.10775001 0.11706493
1.4839743e+29 0.053257346 -1.1868232e+29
-4.1589818e-16 0.11706493 6.5656652e+25
-1.1868251e+29 -1.483879 -0.10675036
-1.4784526 -1.4799784 -1.4784348
4.877533e-17 -0.10625064 -1.4784526
-1.4796427 -1.4784347 2.6617484e-14
-1.1868229e+29 -3.0953883e-27 -1.4796427
-1.4784347 2.6617484e-14 -1.1868228e+29
-6.4477647e-31 -1.4793071 -1.4784346
8.9208077e-12 -0.10475001 0.11706493
975829.38 -1.1868251e+29 -1.483879
-0.10425001 0.11706493 975829.38
-1.1868251e+29 -1.483879 -0.11706493
6.2242393e+35 0.11706493 479.49796
0.052297443 -0.11706493 1.5195897e+32
0.11706493 0.00011432122 0.052057445
-1.1868251e+29 -1.4799479 -1.4784526
-1.4772961 0.05133754 -1.1868251e+29
-1.47975 0.11706493 1.7867041e-24
53487.746 -0.11706493 9.5112302e+20
-1.483879 -0.11706493 0.050765749
-0.044173952 -0.11706493 1.9167537e+17
-1.483879 -0.046217762 -6.1973658e-24
-1.1868106e+29 8.9307717e-36 -0.10727546
1.2569751e+08 8.2377121e+12 -1.1868099e+29
-1.1868082e+29 -1.1868251e+29 -1.483879
-0.04621404 -1.4769572 -1.483879
-0.049300905 -0.046371218 -0.11706493
3028.6509 0.029266233 -1.1868251e+29
-1.4798352 -1.1868251e+29 -1.4767224
0.00011432122 1.4429367e-33 -1.1868251e+29
-1.478706 -1.1868042e+29 -1.1868082e+29
0.0020332893 -1.483879 -0.11706493
6.4352992e-19 -0.035873171 -0.046198864
7.4921556 -1.1868251e+29 -1.483879
-0.046371218 -0.038652647 0.0087492308
-1.483879 -0.11706493 -1.1868082e+29
-1.1868059e+29 1.7624164e-07 -1.4798869
-1.483879 -0.11706493 -1.1868082e+29
-1.1868059e+29 1.7624164e-07 -1.4798869
-1.483879 -0.11706493 -1.1868082e+29
-1.1868064e+29 1.5286577e-25 9.9587829e+36
-1.1868251e+29 -1.4797741 -1.1868059e+29
1.7624164e-07 -1.4798869 -1.483879
-0.11706493 759.74603 -0.040088881
0.029266233 2.3187098e+27 -1.1868251e+29
-1.4775158 -1.1868251e+29 -1.4785534
2.8580305e-05 -7.1653783e+24 -1.1868082e+29
-1.1868251e+29 -1.4794689 1.3463371e-05
-5.5275009e-14 -0.046371218 -0.11706493
11.826156 -1.4836651 -1.3485685e-14
-0.046371218 -0.11706493 1.0257657e-17
-1.1868251e+29 -1.483879 -0.057845827
-0.046371218 -0.11706493 1.3634473e+19
-1.0932347e+20 47.484127 -0.11706493
-1.1868082e+29 3.7361266e-07 -1.483879
-0.042750586 -1.1868251e+29 -1.4766308
5.6424104e-10 -1.483879 -0.036849733
-0.046371218 -0.046615358 -0.046181019
7.4921556 -1.186804e+29 3.5037102e+21
-0.052317847 2.0204995e-13 -1.483879
-0.033750761 -1.1868039e+29 -1.1868082e+29
3.617232e-17 -1.1868029e+29 9.8194873e-24
-0.043685671 -0.046180028 1.0397454e-16
-1.1868251e+29 -1.483879 -0.046371218
-0.043685671 -0.046180028 1.0397454e-16
-1.1868251e+29 -1.483879 -0.046371218
-0.11706493 -1.1868082e+29 5.2793093e-20
-1.483879 -0.11706493 0.11706493
-1.1868082e+29 4.0615057e-19 2.3187098e+27
1.5195897e+32 2.2961915e+26 -0.045917735
-1.1868131e+29 -1.1868251e+29 -1.48007
-1.4776074 -1.1868086e+29 -1.1868081e+29
-1.1868142e+29 6.1973658e-24 5.9358972e+29
-1.1868082e+29 -1.1868081e+29 9.538856e-27
-0.05906653 -0.11706493 3.7099357e+28
-1.1868082e+29 -1.1868034e+29 5.552345e-37
-0.039326604 -1.4798869 -1.478645
-1.1868059e+29 -1.1868081e+29 -1.1868094e+29
-1.1868251e+29 -1.4798124 -1.1868082e+29
-1.1868081e+29 9.538856e-27 -0.05906653
-0.11706493 4.5889409e+24 -0.046371218
-0.032990679 -1.1868046e+29 2.2017466e-38
2.7201218e+23 -1.1868047e+29 -1.1868081e+29
-1.1868075e+29 3.2178563e+10 1.6093988e+22
-1.1868047e+29 -1.1868081e+29 -1.1868075e+29
3.2178563e+10 9.4971452e+20 -0.046371218
-0.032990679 -1.1868046e+29 2.2017466e-38
5.5898393e+19 -0.046264585 -1.483879
-0.046127077 -0.031925905 1.902056e+17
-0.046371218 -0.045917735 -1.1868131e+29
-1.1868251e+29 -1.4793124 -1.1868082e+29
-1.1868109e+29 6.2740653e+37 -1.1868251e+29
-1.47925 3.5037102e+21 -0.053098902
-3.4589693e+08 -0.11706493 3.6310983e+13
-1.1868081e+29 9.538856e-27 -0.05906653
-0.11706493 2.059428e+12 -1.1868082e+29
nan -1.1868081e+29 -1.1868027e+29
-1514.5604 -1.4784392 -1.1868251e+29
-1.478422 -1.483879 -0.11706493
-1.1868099e+29 -1.1868081e+29 0.062484499
-0.043515142 -1.4838428 -0.050277468
-0.11706493 0.062484499 -0.11706493
0.029266233 -1.1868251e+29 -1.483879
-0.049750004 0.062484499 -0.11706493
0.029266233 -1.186821e+29 -0.049300905
-0.054502007 2.1594668e+18 0.029266233
2.8304117e+38 -0.048812624 -0.0364356
2.1594668e+18 0.029266233 2.8304117e+38
-0.048324343 -0.11706493 0.062334061
0.029266233 2.2936427e+32 -0.047836062
-0.11706493 0.06232284 0.029266233
1.8488889e+26 -0.04734778 -0.044980522
6.4984091e-18 0.029266233 1.2569751e+08
-1.1868084e+29 9.9587829e+36 0.062289175
-1.478422 -1.4789103 -1.483879
-0.04625028 -1.4784392 5.5653106e-25
-1.4786052 -1.483879 -0.045750003
0.062277958 0.029266233 119.87449
-1.1868079e+29 6.3877317e+14 -1.1868251e+29
-1.478422 -1.4776707 -1.1868077e+29
31424378 0.062240358 -0.052548345
-1.4770541 -1.1868075e+29 0.98921955
-1.1868107e+29 0.029266233 3.0950269e-29
-0.043750003 0.062210631 0.029266233
2.2545886e-35 -1.1868071e+29 1.6635927e-15
0.062240358 -0.033993658 -1.483879
-0.098017089 9.9157853e-23 0.062240358
-0.11706493 0.029266233 -1.1868233e+29
-0.042250004 0.062240358 -0.048397955
-1.4836321 -0.041749991 0.062240358
-0.11706493 0.029266233 -1.2694432e+18
-0.041244265 -0.11706493 0.062240358
-0.11706493 0.029266233 -1.2694432e+18
-0.040755983 -0.060849659 -1.1868091e+29
0.029266233 -1.5936932e+24 -1.186807e+29
0.062240358 -0.033993658 -1.483879
-0.098016992 -1.1868251e+29 -1.4784391
-1.1868035e+29 0.029266233 -1.1868214e+29
-0.039250001 0.062240358 -0.033993658
-1.483879 -0.098016962 -1.1868102e+29
0.062240358 -0.11706493 0.029266233
-1.1868233e+29 -0.038314577 -0.033505909
-1.9761953e+10 -1.4767436 -1.483879
-0.037826296 -0.11706493 0.062210631
0.029266233 2.2545886e-35 -1.1868047e+29
-1.1868135e+29 0.062210631 0.029266233
2.2545886e-35 -1.1868046e+29 -1.1868065e+29
0.062210631 0.029266233 2.2545886e-35
-1.1868044e+29 6.2242393e+35 0.062240358
-0.11706493 0.029266233 -1.1868233e+29
-0.035750326 -1.4784391 -1.1868251e+29
-1.478422 -1.483879 -0.10778248
9.5111506e+20 -1.1868251e+29 -1.478422
-1.483879 -0.10778247 3.6624788e+13
-1.1868035e+29 0.029266233 -1.1868214e+29
-0.034250196 -1.4784391 -1.1868251e+29
-1.478422 -1.4833236 -1.1868034e+29
0.058896534 -1.1868251e+29 -1.478422
-1.483879 -0.10778242 2.4336653e-09
-1.1868251e+29 -1.478422 -1.4779797
-1.186803e+29 1.0397454e-16 0.062289175
-1.478422 -1.4789103 -1.483879
-0.032250341 -1.4784392 4.4727416e-32
-1.4783 -1.483879 -0.031750001
0.062277958 0.029266233 119.87449
-1.1868025e+29 2.2060642e-41 4.4727416e-32
-1.4783 -1.483879 -0.11706493
-1.1868128e+29 0.062240358 -0.11706493
0.029266233 4.5305883e-17 -0.11706493
-1.1868251e+29 -1.4784391 -1.9761953e+10
-1.4767436 -1.483879 -0.11706493
12127.733 -1.4787059 -1.1868243e+29
-2.0976109e-14 -4.4120437e-08 -1.483879
-0.046127077 -0.11706493 9.0574603e+24
-1.1868054e+29 0.062132083 0.029266233
-1.1868074e+29 -1.1868251e+29 -1.4798869
-1.4784391 5.6609127e+23 0.029266233
-1.1868025e+29 -1.1868251e+29 -1.479124
-1.4784391 6.055897e+37 -1.483879
-0.044173952 -0.11706493 0.0034979279
6.055897e+37 -1.483879 -0.044173952
-0.11706493 6.4984091e-18 0.062240358
-0.11706493 0.029266233 -1.1868108e+29
-1.1868251e+29 -1.4768751 0.062240358
-0.048397955 -1.4836321 -0.029266233
-1.1868082e+29 1.3862195e+38 -1.1868029e+29
-1.1868251e+29 -1.483879 -0.11706493
6.1229254e-25 -2.384714e-27 -0.032699343
-0.11706493 1.085478e-29 -1.1868251e+29
-1.483879 -0.046210226 -1.483879
-0.11706493 1.2865268e-34 -1.1868251e+29
-1.483879 -0.046212133 -1.4826883
-1.1868069e+29 1.571118e-22 -0.037119139
2.1401408e+11 -1.483879 -0.11706493
-1.1868082e+29 -1.1868078e+29 -1.1868082e+29
1.2794958e+13 -1.483879 -0.057357546
-0.046371218 -0.050521608 -0.04622573
1.5195897e+32 -1.1868032e+29 1.105576e-08
-0.054535139 2.1088543e+15 -1.1868135e+29
-72.120964 -1.483879 -0.042783137
-1.1868112e+29 -1.1868104e+29 -1.1868251e+29
-1.4784526 -1.483879 -0.11706493
0.054937184 -0.0027500002 0.11706493
-1.1868043e+29 0.05553709 -0.0022500118
-1.4784526 -1.483879 -0.04623979
-1.483879 -0.11706493 -1.1868115e+29
47.484127 -0.11706493 9.8343153e+35
-4.8321955e-24 -0.11706493 3.6580441e-32
-0.033558119 2.2643651e+24 0.029266233
1917.9918 -1.1868082e+29 -1.1868038e+29
-1.1868082e+29 4.326642e+24 -1.483879
-0.035750616 -1.1868054e+29 2.2362004e+23
-5.320628e-39 -0.035750616 -1.1868085e+29
5.0848526e+10 -1.4796212 1917.9918
-1.1868082e+29 -1.186809e+29 -1.1868082e+29
4.0082107e+27 -1.1868251e+29 -1.4769055
-1.1868106e+29 189.43274 -1.0377061e-14
-0.05475067 -1.1868127e+29 7.0572327e-07
-1.483879 -0.045672849 -1.1868082e+29
-1.1868127e+29 7.0572327e-07 -1.483879
-0.0457041 3.3413984e+15 -0.05906653
-0.046250571 -1.186808e+29 8.2377121e+12
-1.1868082e+29 -1.1868127e+29 7.0572327e-07
-1.483879 -0.045766599 -3.7458371e-29
-0.057667959 5.9358972e+29 -1.186808e+29
-1.1868088e+29 -1.1868082e+29 -1.1868137e+29
4.3074818e-11 -1.483879 -0.045882937
-0.11706493 -1.1868082e+29 -1.1868131e+29
-1.1868082e+29 9.4052003e+29 -0.045882937
-0.033251036 -1.1868137e+29 4.3074818e-11
-1.483879 -0.045882937 -0.057357546
-0.046371218 -0.11706493 -1.1868082e+29
1.4340369e+31 -1.1868251e+29 -1.483879
-0.046371218 -0.11706493 9.7946855e-24
-1.4802316 -1.1868069e+29 1.571118e-22
-0.11706493 9.7946855e-24 -1.4802316
-1.1868124e+29 0.11706493 -1.1868048e+29
0.059798952 -0.060604032 -1.483879
-0.046371218 -0.11706493 -1.1868082e+29
5.6073418e+31 -0.045905273 1.3954331e-37
-0.11706493 1.6047282e-19 -1.483879
-0.045913085 4.2174377e-14 -0.11706493
-1.1868082e+29 1.434037e+31 1.5493415e-24
1.2746423e+10 -0.11706493 -1.1868082e+29
1.434037e+31 1.0153764e-19 3.8523701e+33
-0.11706493 5.9783249e-28 -1.47718
6.6543709e-15 0.11706493 -1.1868251e+29
-1.4784381 6.6543709e-15 0.010750039
-1.4784526 -1.483879 -0.11706493
0.060096677 -1.4784002 1.2871425e+11
0.11706493 -1.1868251e+29 -1.4784383
2.5993636e-17 0.01177591 -0.035947736
-1.483879 -0.033994161 -1.1868251e+29
-1.4784021 -1.186808e+29 0.11706493
-1.1868042e+29 0.060043093 -0.036190331
-1.1868116e+29 0.11706493 -1.1868042e+29
0.060043093 -0.036190365 3.8733536e-25
0.11706493 -1.1868035e+29 0.060287233
-0.11706493 0.01375006 -1.4784526
-1.483879 -0.033994161 -1.1868251e+29
-1.4784061 3.8901496e+34 0.11706493
-1.1868251e+29 -1.4784383 2.5993636e-17
0.014766633 -0.11706493 0.11706493
-1.1868029e+29 0.060531374 -0.053768609
-1.1868059e+29 0.11706493 -1.1868035e+29
0.060287233 -0.11706493 0.029266233
3.1078552e-35 -1.483879 -0.11706493
0.059856668 0.029266233 2.538441e-20
0.11706493 8.0555645e-07 -1.1868251e+29
-1.478422 -1.47825 0.11706493
8.0555645e-07 -1.1868251e+29 -1.478422
-1.4790019 -1.4784526 -1.483879
-0.046238836 -1.4791331 -1.1868251e+29
-1.483879 -0.046371218 -0.11706493
-1.1868082e+29 1.2913631e+34 -1.1868251e+29
-1.4791332 -1.1868251e+29 -1.4798657
7.5848574e+35 -1.1868251e+29 -1.483879
-0.046371218 -0.11706493 -1.1868082e+29
6.2242393e+35 0.011531769 -0.036250342
-1.1868127e+29 7.0572327e-07 -1.483879
-0.046127077 -0.04225086 -1.1868251e+29
-1.47776 9.4974355e+30 6.8734701e-10
-0.048324343 -0.046371218 -0.11706493
1.6047282e-19 -1.483879 -0.046127077
-0.054250944 -1.1868251e+29 -1.4775463
3.7989742e+31 -1.1868081e+29 -71.682106
-1.1868251e+29 -1.483879 -0.046262678
-1.4777905 8.0911363e-12 -1.1868031e+29
1.4632176e-31 -0.11706493 2.6884662e-12
-1.1868082e+29 -1.1868035e+29 5.7156939e-34
-0.11706493 0.043250021 -1.4784526
-1.4770207 0.11706493 3.188667e-11
4.1965844e-08 -1.4768991 0.11706493
-1.1868082e+29 7.133529e-07 -1.1868251e+29
-1.4771801 -1.1868085e+29 193757.17
-1.1868082e+29 -1.1868251e+29 -1.477882
-1.1868232e+29 -1.6027896e-19 1.4983349e-28
-0.11706493 1.9916286e+08 -0.096008755
0.0034844421 -1.1868251e+29 -1.4797131
-1.1868046e+29 -1.1868082e+29 0.05882239
-0.046371218 -0.060043093 -0.046371218
-0.038915861 0.98803324 -0.046371218
-0.055917967 -1.1868117e+29 -1.1868082e+29
29.968622 4.5284392e-05 -0.049300905
-0.046371218 -0.041048277 479.49796
-1.1868082e+29 -1.1868058e+29 1.1321098e-05
-0.058578249 -0.046209272 -1.483879
-0.046371218 -0.033757437 -1.1868134e+29
4.1043772e-17 -1.4772106 -1.1868251e+29
-1.483879 -0.046371218 -0.045394655
-0.046213087 -1.4794689 -1.1868251e+29
-1.4797436 -1.1868251e+29 -1.4770581
26038906 -1.1868251e+29 -1.483879
-0.046371218 -0.09595535 5.0279005e+08
-1.1868082e+29 -1.1868118e+29 2.76394e-09
-0.11706493 -1.1868082e+29 8.0446408e+09
0.011592804 -0.054183718 -0.046371218
-0.11706493 9.5582201e-27 -1.4784526
-1.4795896 0.11706493 -1.1868251e+29
-1.478434 -1.1868251e+29 -1.4784526
-1.4794291 -1.4784526 -1.483879
-0.036191307 1.8013502e-36 -1.478422
-1.4784526 -1.477476 -1.4784346
4.4815568e-29 -1.4777507 -1.4784526
-1.4776001 0.053250249 -1.4784526
-1.4765759 0.11706493 3.6229841e+25
-1.1868251e+29 -1.4793125 0.11706493
-1.1868093e+29 0.051742312 -0.034408327
-0.11706493 2.059428e+12 0.11706493
-1.1868251e+29 -1.4784343 9.3541448e-06
-0.11706493 5.0279005e+08 0.11706493
-1.1868091e+29 0.052778572 -1.1868251e+29
-1.4787577 -1.4784526 -1.483879
-0.041074131 1.0646993e-13 -1.1868251e+29
-1.4785746 -1.4784526 -1.4831421
0.053207155 -0.09801852 -1.4783751
0.11706493 -1.1868143e+29 0.053451296
-0.055892702 -0.11706493 7.1615699e-07
-1.483879 -0.061826088 -1.1868119e+29
-1.1868251e+29 -1.478 0.11706493
-1.1868035e+29 0.053258833 -1.483879
-0.11706493 2.6617484e-14 0.11706493
-3.3917655e+14 -1.1868214e+29 -0.11706493
6.4984091e-18 0.11706493 -1.1868035e+29
0.053258833 -1.483879 -0.11706493
1.5865256e-21 0.11706493 -3.3917655e+14
-1.1868214e+29 -0.11706493 3.8733536e-25
0.11706493 -1.1868251e+29 -1.4784344
-1.1868251e+29 -1.483879 -0.11706493
4.4815568e-29 -1.483879 -0.11706493
0.052718874 -0.11706493 -1.1868251e+29
-1.4768751 0.11706493 -1.1868038e+29
0.052230593 -0.050033327 -0.11706493
1.8013502e-36 -1.483879 -0.11706493
0.052058682 -1.1868251e+29 -1.483879
-0.11706493 0.11706493 -1.1868093e+29
0.051742312 -0.034408327 -0.11706493
-1.1868251e+29 -1.4784526 -1.483879
-0.048886608 -1.1868036e+29 -1.1868251e+29
-1.483879 -0.046371218 -0.11706493
-1.1868082e+29 2.1575393e+11 -0.11706493
-1.1868251e+29 -1.4784008 -1.1868043e+29
-1.1868082e+29 122751.48 -1.1868251e+29
-1.483879 -0.11706493 6.1371796e-25
-0.040023562 -0.046212614 3.6939179e-31
-1.1868061e+29 -1.1868082e+29 -1.1868136e+29
0.0028873642 -1.4787883 -1.483879
-0.03929114 -0.046371218 -0.054427858
-0.046195921 -1.4767131 -1.483879
-0.037826296 -0.046371218 -0.060115088
0.00045728488 491005.91 -1.1868044e+29
9.8620673e+35 -0.051529158 7.1450763e-06
-1.0924162e+20 1.6474366e-16 -0.057845827
-0.046127077 -0.047591921 -0.11706493
-1.1868025e+29 5.68797e-39 -0.11706493
2.7493881e-09 -0.057412084 -1.4804057
-1.4784526 -1.483879 -0.11706493
0.029266233 3.3089338e+38 -0.05906653
-0.11706493 0.11706493 1.5865256e-21
0.029266233 9.4974355e+30 -1.186813e+29
-1.1868251e+29 -1.4784526 -1.4783305
-1.478422 -1.483879 -0.056869265
-0.058089968 -0.05694383 -1.4790447
0.029266233 -1.1868251e+29 -1.483879
-0.057601687 -0.038877424 -1.4795817
-1.478422 -1.483879 -0.053939577
-0.057000097 -1.4784526 -1.4783305
-1.478422 -1.483879 -0.056869265
-0.056500372 -1.4784526 -1.4797648
-1.478422 -1.483879 -0.060775515
-0.056000002 0.11706493 9.0574603e+24
0.029266233 -1.1868138e+29 -1.1868118e+29
2.059428e+12 0.11706493 0.00045728488
0.029266233 -1.1868123e+29 -1.1868116e+29
122751.48 0.11706493 7671.9673
0.029266233 -1.1868251e+29 -1.483879
-0.054500002 0.11706493 7671.9673
0.029266233 -1.1868251e+29 -1.483879
-0.054000001 0.11706493 0.00045728488
0.029266233 -1.1868123e+29 -1.1868111e+29
6.4984091e-18 0.11706493 1.2688155e-07
-1.483879 -0.048080202 -0.053000387
-1.4784526 -1.4783305 -1.478422
-1.483879 -0.056869265 -0.052500002
0.11706493 16399599 -1.483879
-0.10192361 -1.1868251e+29 -1.4784526
-1.4790447 0.029266233 -1.1868251e+29
-1.483879 -0.051498171 -0.046371218
-0.053969607 -1.1868251e+29 -1.4781779
-1.4790324 -1.47953 -1.1868113e+29
9.3152891e-30 -0.11706493 4.4656727e-07
2.0111602e+09 6.1371796e-25 -0.048324343
-0.046127077 -0.11706493 -1.1868251e+29
-1.4789103 -1.483879 -0.046371218
-0.045394655 -0.046127077 -0.11706493
9.0574603e+24 7856094.5 -1.1868082e+29
-1.1868068e+29 6.7123732e-13 -0.11706493
1.5865256e-21 491005.91 0.00072455028
-0.038314577 -0.046127077 -0.059310671
-0.11706493 30687.869 -1.1868082e+29
-1.1868051e+29 -1.1868081e+29 -1.1868132e+29
-1.1868251e+29 -1.4786662 -1.483879
-0.046371218 -0.036849733 -0.046127077
-0.056869265 -0.11706493 119.87449
8.5539799e+17 -0.03538489 -0.046127077
-0.054310735 -1.4785441 -1.4771496
-1.1868251e+29 -1.4787364 -1.1868085e+29
5.6364714e-36 0.24114893 -0.046371218
-0.11706493 48367.746 -0.046879705
-1.4784062 -1.1868082e+29 -1.1868251e+29
-1.479835 -1.1868075e+29 -1.186808e+29
3.2829787e+18 -1.483879 -0.11706493
0.029266233 1.6246023e-18 -1.1868078e+29
1.2871425e+11 0.11706493 -1.1868251e+29
-1.478422 -1.4772929 -1.483879
-0.044500288 -1.4784526 -1.483879
-0.11706493 0.029266233 1.5493415e-24
-1.1868074e+29 0.00020717805 -1.483879
-0.11706493 0.029266233 1.5493415e-24
-1.1868072e+29 8.1423609e-12 -1.483879
-0.11706493 0.029266233 1.0637706e-32
-0.043000158 -1.4784526 -1.483879
-0.038144048 -1.4766607 -1.1868068e+29
1.2684476e-26 -1.483879 -0.11706493
0.029266233 1.0637706e-32 -0.042000003
0.11706493 -1.1868251e+29 -1.478422
-1.4768786 -1.1868063e+29 -1.1868251e+29
-1.4784526 -1.483879 -0.038144048
-1.4766607 -1.1868062e+29 -1.1868082e+29
-1.1868251e+29 -1.483879 -0.046127077
-0.037093874 -0.11706493 4.1589818e-16
3.2630844e+12 -0.11706493 -1.1868081e+29
-1.1868046e+29 -1.1868251e+29 -1.4776591
-1.4769055 -1.1868251e+29 -1.483879
-0.046127077 -0.033780035 -1.4775981
-1.483879 -0.046371218 -0.11706493
-1.1868081e+29 -1.1868034e+29 5.398667e+17
1.0153764e-19 3.8523701e+33 -0.11706493
6.2513847e-22 -0.032036718 -1.477476
-1.4779736 -1.1868251e+29 -1.4785228
-1.1868251e+29 -1.4770793 -1.477415
-1.483879 -0.046371218 -0.11706493
6.2513847e-22 -0.032036718 -1.4773539
-1.483879 -0.046371218 -0.11706493
6.2513847e-22 -0.032036718 -1.4772929
-1.4790112 -1.1868251e+29 -1.483879
-0.046127077 -0.037093874 -0.11706493
9.6833841e-26 1.4289235e-34 -0.11706493
-1.1868081e+29 -1.1868046e+29 -1.1868251e+29
-1.4771562 -1.1868082e+29 -1.1868251e+29
-1.478422 -1.4778981 -0.035500001
0.11706493 -1.1868092e+29 0.029266233
2.0771329 -0.035 0.11706493
7.7224347e-36 -1.4788256 -1.1868034e+29
8.0446408e+09 0.11706493 2.4697745e-32
-1.4791355 -1.1868035e+29 479.49796
0.11706493 9.4564298e-29 0.029266233
4.4123839e+18 -0.033500001 0.11706493
3.8733536e-25 0.029266233 9.0574603e+24
-1.1868031e+29 4.6271228e-13 -1.4774455
-1.478422 -1.48007 -1.483879
-0.032500204 -1.4784526 -1.4774455
-1.478422 -1.48007 -1.483879
-0.032000002 0.11706493 2.4697745e-32
-1.4791355 -1.1868026e+29 3.1078552e-35
-1.483879 -0.057431158 -1.4782084
-1.483879 -0.11706493 0.11706493
-1.1868081e+29 -1.1868065e+29 -1511.4921
-0.11706493 4.1185915e-17 -0.11706493
2.9521329 -0.11706493 9.4564298e-29
-1.1868208e+29 -3.7458371e-29 -0.11706493
-1.1868081e+29 -1.1868221e+29 -2.2017466e-38
-1.1868251e+29 -1.4784526 -1.483879
-0.11706493 0.029266233 -1.1868123e+29
-1.1868251e+29 -1.4797741 -1.1868251e+29
-1.483879 -0.046127077 -0.11706493
9.0574603e+24 -1.1868138e+29 -1.1868082e+29
-1.1868251e+29 -1.4772105 -1.1868251e+29
-1.4785441 -1.483879 -0.05475067
-1.1868251e+29 -1.483879 -0.046127077
-0.10180842 -1.483879 -0.048812624
-0.046371218 -0.11706493 1.3941054e+22
-0.11706493 -1.1868251e+29 -1.483879
-0.042750586 -1.1868251e+29 -1.4796214
-1.1868251e+29 -1.483879 -0.11706493
-1.1868046e+29 -1.1868082e+29 -1.1868251e+29
-1.4785228 -1.1868251e+29 -1.4770793
-1.483879 -0.11706493 -1.1868082e+29
-1.1868251e+29 -1.483879 -0.046127077
-0.033780035 -1.483879 -0.11706493
2.1898188e+20 -0.11706493 -1.1868081e+29
-1.1868056e+29 -1.1868251e+29 -1.483879
-0.11706493 -1.1868082e+29 -1.1868251e+29
-1.478422 -1.4778981 -0.024500001
0.11706493 7.7224347e-36 -1.4788256
-1.186821e+29 -3.9663141e-22 0.11706493
9.4564298e-29 0.029266233 4.4123839e+18
-0.034000333 -1.4784526 -1.476652
-1.4784324 6.0783587e+32 4.3033239e-37
-1.1868053e+29 -1.1868082e+29 491005.91
0.029266233 -1.1868115e+29 47.484127
-0.053323019 9.1496339e+08 -1.483879
-0.11706493 -1.1868082e+29 -1.1868141e+29
1.4934524e-28 5.6364714e-36 -1247.4921
-0.046371218 -0.11706493 -1.1868082e+29
3.296168e+12 -1.1868079e+29 3.3413984e+15
-0.11706493 2.3337424e-30 -1.4789103
-1.483879 -0.11706493 3.6580441e-32
-0.11706493 -1.1868082e+29 1.3180339e+14
-1.8141236e+27 -1.1868082e+29 -1.1868217e+29
-1.1285984e-05 -1.4778117 -1.483879
-0.035750616 -1.1868251e+29 -1.4803845
3.3741669e+16 3.5380704e+22 6.6189498e+22
-1.1868251e+29 -1.483879 -0.046231359
1.5195897e+32 1917.9918 -1.1868082e+29
-1.1868043e+29 2.4581803e+35 -1.1868251e+29
-1.4776591 -1.4769055 -1.1868068e+29
-1.1868082e+29 5.528235e+20 -1.1868251e+29
-1.4766562 5.8782502e+28 -0.045394655
-0.046236929 -1.4793986 -1.4825624
-1.1868082e+29 -1.1868094e+29 -1.1868082e+29
8.8451761e+21 -382845.97 -0.035750616
-1.1868114e+29 -1.1868082e+29 1.4152282e+23
1.4429367e-33 4.3033239e-37 -1.1868125e+29
-1.1868082e+29 5.6609127e+23 0
0.11706493 4.6999305e+22 3.7099357e+28
0.00050000002 0.11706493 3.4551469e+19
0.056136843 -0.033259328 -1.477125
0.11706493 1.4491936e+26 0.056380983
-0.045597654 -1.1868082e+29 -1.1868251e+29
-1.4774243 1.4491936e+26 4.0551762e-17
5.8782502e+28 -0.11706493 6.2673063e-22
-1.4776682 2.5993636e-17 3.6580441e-32
-0.11706493 -1.1868082e+29 5.7967746e+26
-1.186808e+29 1917.9918 -1.1868082e+29
-1.1868251e+29 -1.483879 -0.046246465
-1.4794992 6.6189498e+22 -1.1868251e+29
-1.483879 -0.046248231 -1.5918841e-19
-0.035750616 -1.1868251e+29 -1.483879
-0.046249639 1.4478102e-31 -0.059798952
-0.046371218 -0.11706493 9.7935433e-24
9.0880519e+26 -0.11706493 3.6580441e-32
-0.11706493 -1.1868082e+29 3.1200097e+28
-1.1868079e+29 3.3413984e+15 -0.11706493
-1.1868082e+29 3.1200097e+28 -1247.4921
-0.046371218 -0.11706493 1.4657299e+28
-1.483879 -0.045882937 -0.11706493
-1.1868082e+29 -1.1868251e+29 -1.4790112
2.3743589e+30 1.5247221e+34 -0.05475067
-1.1868251e+29 -1.483879 -0.046251513
192446.98 -0.095001675 -1.1868251e+29
-1.4781262 9.4974355e+30 2.4299981e-24
5.8782502e+28 -0.11706493 -1.1868082e+29
3.6896984e+30 3.7735999e-32 -0.046371218
-0.11706493 1.2713442e+10 -1.4802318
3.0915334e-27 -0.046371218 -0.11706493
-1.1868082e+29 9.4547179e+29 -0.045925077
-1.483879 -0.046371218 -0.11706493
-1.1868082e+29 3.1200099e+28 2.5993636e-17
3.6580441e-32 -0.11706493 -1.1868082e+29
9.2748393e+27 -1.1868081e+29 1.935465e-12
-1.1868217e+29 -9.1210714e-33 -1.4782786
1.7261932e-07 -1.1868251e+29 -1.483879
-0.046249639 1.4501173e-31 -1.1868082e+29
-1.1868251e+29 -1.483879 -0.046250574
-1.1868081e+29 1917.9918 -1.1868082e+29
-1.1868251e+29 -1.4790112 2.3743589e+30
1.5276753e+34 -1.483879 -0.046371218
-0.11706493 -1.1868082e+29 3.6896984e+30
8.2377121e+12 -1.1868082e+29 -1.1868251e+29
-1.4790112 2.3743589e+30 1.5281903e+34
1.571118e-22 -0.11706493 1.2713442e+10
-1.4802318 6.6189498e+22 -1.1868251e+29
-1.4781262 9.4974355e+30 2.4353933e-24
-1.4797741 -1.1868251e+29 -1.483879
-0.046246465 -1.4794993 3.9835132e+37
0.11706493 1.4491936e+26 0.056380983
-0.046127077 -0.059798952 -0.046371218
-0.10527465 8.4354172e+15 -1.1868081e+29
-1.1868251e+29 -1.483879 -0.046263631
-1.4776988 45551.746 -0.046127077
-0.11706493 3.8434321e+33 -1.483879
-0.045968316 1.6003545e-19 -0.03929114
-0.046371218 -0.11706493 1.4657299e+28
-1.483879 -0.046127077 -0.04525112
-1.1868251e+29 -1.4781262 9.4974355e+30
2.4419471e-24 -0.05125403 -0.046371218
-0.11706493 4.4109523e-08 -1.4773022
1.0646993e-13 -1.1868082e+29 -1.1868126e+29
0.046371218 -0.11706493 1.6801849e-13
1.105576e-08 -0.061307181 -1.1868251e+29
-1.483879 -0.046186522 9.8620673e+35
-0.11706493 3.5723087e-35 -0.11706493
0.0007216949 -1.1868082e+29 -1.1868251e+29
-1.483879 -0.046371218 -0.033472288
1.007339e-08 -1.1868145e+29 1.5342949e-25
-0.037927855 1.7261932e-07 -1.1868141e+29
2.5137888e-21 -0.11706493 -1.1868082e+29
2.9494838e-06 -0.046371218 -0.052585829
-1.1868251e+29 -1.483879 -0.046196286
-1.1868082e+29 -1.186808e+29 -1.1868082e+29
-1.1868063e+29 -1.1868082e+29 0.00084767101
-1.1868036e+29 -1.1868082e+29 -1.1868251e+29
-1.4779125 0.014339386 -0.046371218
-0.11706493 -1.1868082e+29 -1.1868251e+29
-1.483879 -0.046202146 -1.1868082e+29
-1.1868251e+29 -1.483879 -0.046371218
-0.040023562 -0.046204504 -1.4771496
-1.1868251e+29 -1.4801708 -1.1868121e+29
-1.1868082e+29 119.87449 8.5539799e+17
-0.11706493 -1.1868082e+29 -1.186813e+29
-1.1868082e+29 1917.9918 -1.1868082e+29
-1.1868124e+29 -1.1868082e+29 -1.1868075e+29
2.2249414e-36 -1.483879 -0.046371218
-0.050411452 -1.1868251e+29 -1.483879
-0.046212133 -1.4783398 -1.1868067e+29
-1.1868082e+29 -1.1868251e+29 -1.4770581
7856094.5 -1.1868082e+29 -1.1868251e+29
-1.4772717 -1.1868251e+29 -1.4766308
1.2569751e+08 -1.1868082e+29 -1.1868251e+29
-1.483879 -0.046371218 -0.10870788
2.0111602e+09 6.1371796e-25 -0.11706493
-1.1868082e+29 -1.1868112e+29 2.3436204e+29
-1.47953 -1.1868251e+29 -1.483879
-0.046371218 -0.11706493 2.9581869
-1.4784526 -1.483879 -0.035947736
-1.47733 0.051986452 -0.11706493
0.11706493 -1.1868251e+29 -1.4784526
-1.4833567 0.052500002 0.11706493
-1.1868251e+29 -1.4784526 -1.479517
-0.11706493 -1.186807e+29 0.11706493
1.6720178e-36 -1.1868108e+29 -1.1868251e+29
-1.483879 -0.033994611 -1.4775102
0.052299872 -1.1868251e+29 -1.483879
-0.11706493 0.11706493 4.4656727e-07
0.052780088 -1.483879 -0.11706493
-1.1868251e+29 -1.4784526 -1.4784989
0.053019717 -1.1868251e+29 -1.4825625
0.11706493 1917.9918 0.053207155
-0.03147864 -0.10925 0.11706493
3166038.5 1.4484363e-15 -5.0364e-05
-1.4790019 -1.4784348 -1.1868251e+29
-1.483879 -0.10825001 0.11706493
3166038.5 1.4484361e-15 -1.9503251e-12
-1.4786662 -1.4784347 -1.1868025e+29
-1.1868232e+29 -4.1589818e-16 0.11706493
1917.9918 0.053207155 -0.03147864
-0.10675036 -1.4784526 -1.4784989
0.053019717 -1.186823e+29 -2.4789463e-23
0.11706493 1.757504e-10 -1.1868217e+29
-0.10575 0.11706493 3.0120406e-20
5.4582717e-05 -0.10525001 0.11706493
9.8065926e-27 0.024016302 -1.2958042e-34
-1.4768511 0.05181995 -1.1868226e+29
-2.4840019e-38 -1.483879 -0.047421742
-1.66576e+18 -0.11706493 6.2242393e+35
0.11706493 -1.1868039e+29 0.050521608
-0.051986452 -0.11706493 1.5195897e+32
0.11706493 -1.1868087e+29 0.050860342
-1.483879 -0.11706493 -1.1868078e+29
0.11706493 -1.1868137e+29 0.029266233
3.8072477e-19 -1.1868043e+29 0.11706493
-1.1868081e+29 -1.1868103e+29 -1.1868251e+29
-1.4804362 -1.483879 -0.046371218
-0.11706493 4.2959188e-11 -0.059128698
-1.4803752 -1.4784526 -1.4770488
-1.478422 -1.483879 -0.11706493
-1.186814e+29 -1.1868093e+29 0.11706493
6.2083457e-19 -1.483879 -0.03929114
-0.060775515 -0.11706493 0.11706493
1.9739491e-15 -1.483879 -0.050033327
-0.060250003 0.11706493 0.00011432122
0.029266233 -1.1868217e+29 -0.059798952
-0.057432111 -1.4784672 0.029266233
-1.1868251e+29 -1.483879 -0.059310671
-0.039609846 -1.4786454 0.029266233
-1.1868059e+29 -1.1868131e+29 -1.1868251e+29
-1.4784526 -1.4790019 -1.478422
-1.4765759 -1.1868129e+29 -1.1868251e+29
-1.4784526 -1.4795365 0.029266233
2.538441e-20 2.3187098e+27 759.74603
-0.05646728 -1.1868063e+29 2.420846e-26
7.7049832e+25 -0.046371218 -0.062240358
-0.046127077 -0.05125403 -0.11706493
4.5889409e+24 -0.046371218 -0.11706493
6.7123732e-13 -0.058648046 -1.4796875
8.969498e+23 -0.11706493 6.7123732e-13
-0.058648046 -1.479625 2.5137888e-21
-0.11706493 6.7123732e-13 -0.058648046
-1.4795624 -1.1868082e+29 -1.1868251e+29
-1.4766307 -1.186814e+29 3.5380704e+22
5.5898393e+19 -0.046371218 -0.11706493
1.3880862e-37 -0.061131414 -1.4794375
2.9677579 -0.11706493 1.3880862e-37
-0.061131414 -1.4793749 -1.1868082e+29
-1.1868251e+29 -1.4766307 -1.186814e+29
3.5380704e+22 1.1043425e+16 -0.046371218
-0.11706493 -1.1868081e+29 -1.1868251e+29
-1.483879 -0.11706493 6.350236e+14
-1.1868251e+29 -1.483879 -0.046127077
-0.11706493 -4.2634677e+17 9.8194873e-24
-0.11706493 -1.1868081e+29 -1.1868251e+29
-1.4832989 2.059428e+12 -1.1868082e+29
-1.1868251e+29 -1.4781566 -1.1868251e+29
-1.4778117 -1.4790629 -1.4784526
-1.483879 -0.033993658 -1.483879
-0.052963015 -0.050765749 -0.045957502
-1.483879 -0.044003423 -1.483879
-0.041244265 -0.050277468 -0.11706493
0.11706493 -1.1868251e+29 -1.478422
-1.483879 -0.10778292 -21662.967
-1.483879 -0.11706493 0.029266233
-1.1868233e+29 -0.049300905 -0.054502424
-1.483879 -0.11706493 0.029266233
-1.1868251e+29 -1.483879 -0.048812624
-0.036436018 -1.483879 -0.041806158
-1.4799871 -1.186809e+29 -1.1868251e+29
-1.4784526 -1.483879 -0.041806158
-1.4799871 -1.1868088e+29 -1.1868251e+29
-1.4784526 -1.483879 -0.051815923
-1.4796767 -1.1868086e+29 -1.1868078e+29
0.11706493 1.5934053e+38 0.029266233
1.2871425e+11 -1.1868084e+29 9.9587829e+36
0.11706493 9.4974355e+30 0.029266233
0.055892702 -0.04625028 -1.4784526
-1.4798928 0.029266233 4.4921531e-08
-0.045750003 0.11706493 9.5504206e+23
-1.4778161 -1.1868079e+29 6.3878076e+14
-1.4793681 -1.478422 -1.4771967
-0.04475015 -1.4784526 -1.4797146
0.029266233 3.3070548e-14 -0.04425
0.11706493 3.1187969e+27 -1.4781265
-1.1868073e+29 4.1965844e-08 -1.48007
-1.478422 -1.478436 -1.1868071e+29
1.6635927e-15 0.11706493 3.1187969e+27
-1.4781265 -1.1868069e+29 9.9157853e-23
0.11706493 2.8158727e+20 -1.4775065
-1.4779375 2.088374e+14 -0.057893023
-1.1868073e+29 7.4921556 4.6199486e-13
-1.1868128e+29 6.4014179e-19 -0.043763097
-1.4778117 -1.483879 -0.046371218
-0.057893023 -1.1868073e+29 7.4921556
1.6635927e-15 6.1637921e+34 -0.059310671
-0.046127077 -0.046238836 -1.4776896
-1.4780346 -1.1868132e+29 -1.1868081e+29
-1.1868082e+29 3.5380704e+22 6.4984091e-18
-1.1868082e+29 -1.1868128e+29 6.4014179e-19
-0.043763097 -1.4775624 -6.2844719e-22
-0.05646728 -1.1868063e+29 2.420846e-26
2.538441e-20 2.0394277e+11 -0.053695437
-0.046127077 -0.036324251 1.5865256e-21
2.2862776e-33 -0.050765749 -0.046127077
-0.031357702 -1.4773844 -1.483879
-0.046371218 -0.052230593 -0.046127077
-0.033920046 -0.11706493 6.1973658e-24
2.4077313e+32 -0.053695437 -0.046127077
-0.036324251 3.8733536e-25 6.7479003e-13
-0.05504249 -1.1868053e+29 -1.1868044e+29
6.2242393e+35 0.11706493 3.1187969e+27
-1.4781265 -1.1868042e+29 3.7099357e+28
0.11706493 1.5934053e+38 0.029266233
1.2871425e+11 -1.186804e+29 9.5112302e+20
-1.483879 -0.061825689 -1.4793681
-1.477 8.9307717e-36 -0.11706493
6.7123732e-13 -0.058648046 -1.4769374
-1.1868082e+29 -1.1868251e+29 -1.4778819
-1.1868131e+29 0.00011432122 9.1213167e-33
-1.1868251e+29 -1.4766307 -1.186814e+29
3.5380704e+22 5.3310124e-34 -1.1868251e+29
-1.4778819 -1.1868131e+29 0.00011432122
3.1021109e-35 -0.046371218 -0.11706493
-1.1868081e+29 -1.1868251e+29 -1.483879
-0.11706493 1.79776e-36 -0.046371218
-0.11706493 6.7123732e-13 -0.058648046
-1.476625 3111919.8 -0.05646728
-1.1868063e+29 2.420846e-26 8.5479206e-44
-1.1868111e+29 -1.1868081e+29 -1.1868044e+29
-386941.97 -0.11706493 3.6739064e+27
-0.047913775 -1.1868251e+29 -1.4776896
-1.483879 -0.11706493 -1.1868082e+29
-1.1868083e+29 5.7102556e+25 -0.11706493
-1.1868251e+29 -1.483879 -0.048398908
-1.4779338 -1.478422 -1.483879
-0.061752077 -0.11700001 0.11706493
2.7910454e-08 0.029266233 -3.2911971e+08
-0.11706493 4.022062e-20 -0.046488032
-1.1868251e+29 -1.483879 -0.11706493
-1.1868127e+29 -1.1868082e+29 -1.1868095e+29
2.4419471e-24 -0.11706493 1917.9918
-1.1868103e+29 -1.1868082e+29 -1.1868099e+29
-1.1868081e+29 -1.1868025e+29 5.9358972e+29
-1.186808e+29 5.6059363e+22 -0.052230593
-0.046127077 -0.033920046 -0.11706493
-1.1868057e+29 -1.1868082e+29 -1.1868105e+29
-1.1868081e+29 -1.1868034e+29 -1.1868251e+29
-1.483879 -0.033750761 -1.1868116e+29
5.9876369e+31 -0.038802858 -0.11706493
-1.1868082e+29 -1.1868128e+29 6.4014179e-19
-0.043763097 -1.483879 -0.11706493
6.1371796e-25 -0.060775515 -0.046127077
-0.048812624 -0.11706493 -1.1868251e+29
-1.483879 -0.046371218 -0.062240358
-0.046127077 -0.05125403 -0.11706493
-21495.873 -0.046371218 -0.11706493
3.2459045e+12 -0.056164678 -1.4825
8.5539799e+17 -0.11706493 1.5696231e+37
-0.053695437 -0.033 0.11706493
5.7967746e+26 0.048324343 -0.050033327
-0.11706493 -1.1868082e+29 -1.1868137e+29
-1.1868082e+29 30687.869 1.5195897e+32
-1.1868251e+29 -1.483879 -0.046371218
-0.11706493 2.3997884e+32 4.0615057e-19
-1.1868125e+29 -1.1868082e+29 -1.1868251e+29
-1.4801403 1.2871425e+11 1.0397454e-16
-1.1868032e+29 1.105576e-08 -0.034896608
-0.046223577 -1.483879 -0.11706493
-1.1868251e+29 -1.483879 -0.046371218
-0.038831938 5.0685911e+13 -1.483879
-0.047836062 -0.046371218 -0.041488405
-0.046225738 -1.1868251e+29 -1.4801562
-3.7458371e-29 -0.038831938 5.0685911e+13
-1.4791545 -1.483879 -0.046371218
-0.048080202 -0.046228345 -1.476591
-1.4781562 3.3413984e+15 -0.055970419
5.398667e+17 -6.427882e+12 -1.1868082e+29
-1.1868251e+29 -1.4785534 1.0438423e+19
-1.1868115e+29 47.484127 -0.11706493
9.1180834e-33 5.9358972e+29 -1.1868251e+29
-1.4769055 -1.1868251e+29 -1.483879
-0.046236049 -1.1868251e+29 -1.4786662
-1.483879 -0.046371218 -0.11706493
9.1186263e-33 -1.4803752 -1.483879
